0.04218785 -0.02581990 0.28264475 130 118 102
0.05707937 -0.03270354 0.25764477 18 22 6
0.07671930 -0.03567027 0.25889477 14 14 10
0.00851897 -0.00275409 0.32326972 134 134 126
0.01477597 -0.00425611 0.32451975 78 82 82
0.10679363 -0.03183983 0.27514479 78 74 70
0.05620389 -0.02256704 0.26764473 146 162 126
0.09009588 -0.02545898 0.27514479 82 74 66
0.03270896 -0.00575178 0.31264481 82 74 74
0.00948727 0.00075935 0.32326972 122 118 110
0.01611037 0.00260301 0.33201978 138 134 134
0.07650792 -0.01626625 0.27014482 38 38 34
0.07711005 -0.01609864 0.26826975 34 30 30
0.12505552 -0.02286374 0.27076972 58 54 50
0.02634619 0.00545235 0.33326972 106 102 102
0.08296353 -0.01382044 0.26326975 34 34 30
0.09396907 -0.01140561 0.27576980 130 114 102
0.10547743 -0.01079703 0.27639470 158 150 134
0.04404328 0.00713478 0.32889470 82 82 78
0.09948721 -0.00792320 0.26826975 134 122 110
0.07037473 0.00343565 0.31076980 34 34 30
0.13133705 -0.00813984 0.26764473 66 62 58
0.06920149 0.00765038 0.31701982 30 26 26
0.04915801 0.01439744 0.33514476 134 134 134
0.13652000 -0.00345330 0.26389480 38 38 34
0.12540881 0.00383390 0.27014482 14 10 6
0.05015720 0.02246080 0.33826983 94 90 74
0.11225533 0.01379648 0.24764478 30 22 14
0.10439058 0.01874349 0.22451971 38 30 22
0.11462640 0.02159283 0.21826981 174 170 146
0.11080884 0.02831535 0.21889472 102 98 74
0.13038048 0.02792461 0.21826981 50 46 38
0.03964167 0.04159158 0.32389474 90 90 90
0.08350261 0.04017701 0.26764473 178 158 122
0.05469434 0.04578178 0.30639482 90 82 66
0.12167132 0.04755822 0.25576970 118 114 110
0.10691007 0.06096580 0.25389481 114 110 114
0.01101605 -0.10261728 0.27139470 22 18 14
0.02168638 -0.09899823 0.28139472 82 70 62
0.03225742 -0.09735312 0.28451976 102 94 86
0.00434908 -0.08565909 0.28389475 18 18 14
-0.00177767 -0.07763304 0.30014476 42 30 26
0.01097229 -0.08381540 0.27889481 42 38 30
0.02455379 -0.08133216 0.27951980 58 50 42
0.06741552 -0.09080998 0.25826979 106 74 62
0.03850153 -0.07550333 0.27764472 86 82 74
0.01701791 -0.06591339 0.28076982 58 58 50
0.04050647 -0.07105254 0.25889477 50 46 42
0.14837752 -0.09033062 0.26014480 86 18 6
0.09799270 -0.08878589 0.20764481 58 38 30
0.04354794 -0.06566457 0.25264478 26 18 14
0.03250509 -0.06095346 0.25639471 102 94 86
0.00673830 -0.04996071 0.27264476 194 170 158
0.13378391 -0.07752518 0.22951972 26 26 22
0.05458437 -0.05869982 0.23264480 18 10 6
0.03681264 -0.04613027 0.27701971 110 102 90
0.03630984 -0.04432403 0.27701971 130 118 94
0.13832739 -0.06588020 0.22451971 34 30 26
0.05079781 -0.04742733 0.25014472 42 30 14
0.07699265 -0.04597438 0.26326975 26 22 22
0.14772519 -0.06002037 0.23514472 30 26 22
0.10720362 -0.04729601 0.25826979 34 30 26
-0.01907226 -0.02016607 0.31139478 54 54 50
0.08321223 -0.04035050 0.26889476 14 10 10
0.01686203 -0.02573339 0.28389475 90 82 66
0.01157322 -0.02071796 0.30264473 46 38 34
0.08404391 -0.03168499 0.26389480 22 18 18
0.03405617 -0.02224462 0.28326973 122 114 106
0.09454655 -0.02746395 0.27514479 74 66 58
0.08778671 -0.02415557 0.27451980 78 70 62
0.02802873 -0.01224471 0.30701983 74 70 70
0.03602368 -0.01066794 0.31014478 58 58 50
0.10886047 -0.01828929 0.28014481 82 74 66
-0.00315703 -0.00276043 0.31889474 138 130 126
0.03110120 -0.00230678 0.31514478 90 90 86
0.02149846 -0.00043844 0.32826981 82 82 78
0.05505514 -0.00212628 0.31014478 94 86 82
0.04608555 0.00445951 0.32451975 82 78 78
0.12949339 -0.00151674 0.26451981 30 26 22
0.04517920 0.01004609 0.33514476 86 86 86
0.10305617 0.01188437 0.24014471 26 18 14
0.05152905 0.02219390 0.33451974 62 58 50
0.01626521 0.02535274 0.32076976 86 78 74
0.12161579 0.02678235 0.22076975 106 98 82
0.09297516 0.03178488 0.26514482 146 138 98
0.09129908 0.03780597 0.27764472 38 34 22
0.05115006 0.04220004 0.31389472 58 54 50
0.10584245 0.05547850 0.25639471 74 78 78
0.01393371 -0.11542922 0.25201973 30 26 22
0.08987381 -0.10856259 0.24014471 82 78 58
0.02476520 -0.10073630 0.28514478 138 126 118
0.09344910 -0.10043089 0.24576974 74 62 54
0.00254915 -0.09783778 0.26889476 18 14 10
0.00181040 -0.09285332 0.28951979 46 42 38
0.12686926 -0.09696664 0.21576975 18 14 10
0.00063715 -0.08863858 0.29201970 18 14 14
0.10130753 -0.09370203 0.20764481 46 42 34
0.01963765 -0.08464700 0.28264475 146 142 130
0.07835266 -0.08581920 0.23326981 166 138 126
0.10210180 -0.07791062 0.25514469 82 74 70
0.12752691 -0.07602316 0.23201977 18 14 10
0.10899179 -0.07469510 0.22576974 66 70 58
0.10775024 -0.06790440 0.25451982 54 50 46
0.11805436 -0.06763104 0.22389470 66 62 58
0.12300149 -0.05976624 0.25139475 54 46 38
0.00979258 -0.06792470 0.23576973 6 2 2
-0.00385728 -0.06783172 0.25139475 162 146 134
-0.00556432 -0.06636070 0.25201973 154 142 126
0.00631025 -0.06240641 0.24451981 42 34 30
-0.00493121 -0.06164314 0.24951981 106 94 78
0.00935173 -0.05701843 0.27326977 38 30 22
0.00834606 -0.05340571 0.27764472 118 102 94
0.04785553 -0.05084150 0.25576970 30 26 14
0.09462130 -0.04171590 0.26701972 14 10 10
0.10796689 -0.03605456 0.26889476 34 34 30
0.07197078 -0.03958723 0.24764478 14 14 10
0.10361555 -0.03207574 0.27701971 54 50 42
-0.01039398 -0.04434960 0.25389481 34 30 26
-0.00591235 -0.04180449 0.25826979 26 26 22
-0.00203284 -0.03942700 0.27451980 42 38 34
-0.00390750 -0.03735386 0.26639473 14 10 2
0.00539098 -0.03346790 0.27951980 90 86 78
-0.00447863 -0.03297152 0.28639472 30 22 18
0.03653295 -0.02415016 0.28076982 94 86 74
0.03723438 -0.02200869 0.28326973 126 114 98
0.10447179 -0.00718442 0.27451980 158 150 138
-0.01087228 -0.02631732 0.30201972 38 34 26
-0.00699274 -0.02393994 0.30139482 42 38 34
0.07563256 -0.00612972 0.26014480 30 22 10
-0.01445401 -0.02277303 0.30264473 42 38 34
0.12825169 0.00527405 0.26826975 26 26 22
0.01839503 -0.01492643 0.30389473 62 62 58
0.03766243 -0.00956299 0.31014478 70 70 62
0.00665074 -0.01235680 0.31139478 82 82 82
0.01370835 -0.00974340 0.31514478 74 74 74
0.02705409 -0.00408215 0.31764472 82 86 90
-0.01797376 -0.01012885 0.31451976 114 110 98
0.06157273 0.00941944 0.32076976 70 70 62
0.12097625 0.03374064 0.22764479 10 10 6
-0.00416267 0.00085217 0.32326972 70 66 62
0.09069696 0.03763836 0.27014482 170 154 118
0.11751845 0.05548485 0.24576974 42 38 30
0.01238567 0.02297536 0.31826973 82 78 74
0.01475674 0.03077171 0.31639481 98 94 86
0.01902381 -0.12439249 0.21201979 66 34 26
0.05130169 -0.11216344 0.22076975 122 70 66
0.02148781 -0.10294618 0.28514478 90 86 82
0.02081736 -0.10053769 0.28451976 114 106 98
0.00853928 -0.10071176 0.26451981 46 38 34
0.04788122 -0.09754527 0.24639474 122 58 50
0.00840265 -0.09555969 0.28264475 38 38 34
0.14596270 -0.07932507 0.24451981 46 34 26
0.10876235 -0.08319297 0.21826981 50 38 42
0.12555294 -0.07592387 0.23389481 22 18 18
0.00006603 -0.08425625 0.30451974 30 26 22
-0.00060439 -0.08184788 0.30389473 42 42 38
0.09607425 -0.06791074 0.23576973 82 74 70
0.06054360 -0.06612360 0.27514479 122 114 106
0.11901624 -0.05244175 0.25764477 42 38 34
0.03635360 -0.06312592 0.26139474 62 58 50
0.00835240 -0.06508171 0.24451981 34 30 26
0.00038844 -0.06210853 0.25201973 178 166 150
0.08110809 -0.04677511 0.25639471 22 18 14
0.10081001 -0.04064193 0.26264477 26 22 18
-0.00198905 -0.05822901 0.24889480 62 58 50
0.01694313 -0.05166133 0.28139472 62 38 26
0.00148694 -0.05207130 0.28576979 106 102 90
0.04269712 -0.03930211 0.27639470 178 166 134
0.10796058 -0.02437868 0.27701971 74 70 58
0.07316855 -0.02757604 0.26201975 18 14 10
0.13287640 -0.00900889 0.26451981 66 62 58
-0.00106451 -0.03591368 0.27701971 22 18 14
0.07660721 -0.01429228 0.26764473 26 26 22
0.01642752 -0.02650312 0.28389475 114 106 98
-0.00635332 -0.03089826 0.29701972 38 38 34
-0.00023291 -0.02724832 0.29889476 42 42 34
0.08767463 -0.00277758 0.26701972 22 22 14
0.08814013 0.00254210 0.26139474 14 14 10
0.04642712 -0.00842073 0.28764474 122 118 114
-0.01549052 -0.02371035 0.30326974 46 42 38
-0.01238075 -0.02089835 0.30139482 42 42 38
-0.01305117 -0.01848998 0.31701982 58 58 58
0.06702904 0.00380187 0.31764472 58 62 62
0.11575585 0.03618011 0.21951973 34 30 18
0.06070371 0.00787998 0.32451975 70 70 66
0.05953046 0.01209470 0.32764480 70 66 58
-0.00994774 -0.00400198 0.31951973 94 86 82
0.10965367 0.06043197 0.23639476 62 58 54
-0.01032672 0.01600416 0.30764470 74 70 62
0.02519113 0.03756899 0.32014474 102 98 98
0.11827220 -0.09871102 0.21701978 18 14 14
0.13285305 -0.08816461 0.24514472 18 18 14
0.12238118 -0.08783579 0.21951973 22 14 14
0.12411924 -0.08475696 0.25326979 146 86 74
0.07317606 -0.10218173 0.22389470 50 38 34
0.04417567 -0.11220089 0.24201976 66 50 38
0.14612389 -0.06825134 0.23139475 62 62 58
0.06374095 -0.10091564 0.26014480 114 102 86
0.13317536 -0.06601693 0.22139478 22 14 14
0.02590745 -0.10950096 0.21826981 62 30 30
0.13441056 -0.06113164 0.21139479 18 14 6
0.11417486 -0.07000852 0.25326979 78 74 66
0.01731038 -0.11124536 0.27451980 46 42 38
0.06493875 -0.08890444 0.26201975 98 86 78
0.08400119 -0.07581282 0.23389481 86 78 74
0.03396438 -0.09882430 0.28576979 46 38 38
0.03811079 -0.09507496 0.28201973 34 26 26
0.03727276 -0.09206446 0.28326973 114 102 98
0.06416266 -0.07679394 0.26639473 46 46 38
0.02007862 -0.09555323 0.28451976 66 58 50
0.12078527 -0.04481287 0.26076972 22 18 18
0.08599970 -0.05968619 0.27014482 42 38 34
0.06000980 -0.06886731 0.27826974 70 58 46
0.04545993 -0.07486376 0.28326973 90 82 74
0.11612957 -0.03507988 0.26889476 26 26 18
0.00726036 -0.08679489 0.28514478 26 22 14
0.10866833 -0.03391309 0.27326977 54 50 46
0.10241130 -0.03241096 0.27264476 66 62 58
0.12455267 -0.02105738 0.27764472 38 38 34
0.02785585 -0.06289645 0.25451982 30 26 22
0.03899157 -0.05395773 0.25451982 74 70 54
0.03383949 -0.05409434 0.25451982 26 18 6
0.05263504 -0.04237458 0.25576970 90 86 70
0.06049338 -0.03564574 0.25639471 14 10 6
0.12470741 0.00169232 0.27076972 14 10 6
0.02413747 -0.05419997 0.28201973 166 146 126
0.11945602 -0.00041817 0.27514479 22 22 22
0.03667602 -0.04097819 0.27826974 210 202 174
-0.00804747 -0.05277906 0.24826978 6 10 2
0.04526675 -0.02755782 0.27889481 202 182 162
0.09813354 0.02024562 0.22201978 30 26 18
0.03108298 -0.03020858 0.27701971 238 222 198
0.11508544 0.03858848 0.22014473 30 26 22
0.12334739 0.04153713 0.24326979 18 14 14
0.04562651 -0.01253614 0.27826974 74 66 54
0.11839382 0.04534831 0.23764479 10 10 10
0.02659501 -0.02107769 0.28514478 66 58 50
0.02696111 -0.01773201 0.28389475 18 14 10
-0.01541589 -0.03796232 0.28201973 22 18 14
0.03431672 -0.00919677 0.28639472 26 22 18
0.03558917 -0.01143768 0.30451974 54 50 46
-0.00815956 -0.03140107 0.29201970 34 30 26
0.03207585 -0.01046934 0.30889475 78 74 70
0.03976657 -0.00313838 0.31139478 78 78 78
0.03591805 -0.00096592 0.30889475 106 110 114
-0.01555893 -0.02113440 0.30326974 42 38 34
0.04561358 0.01081579 0.33326972 82 82 82
-0.00017742 -0.00647233 0.32264480 130 130 130
0.04851845 0.02135585 0.33826983 158 162 154
-0.00962540 0.01814560 0.30889475 82 78 74
0.13275373 -0.09013848 0.23514472 22 18 18
0.11398271 -0.08563233 0.25514469 110 82 70
0.07163659 -0.10131271 0.22764479 54 50 38
0.07568382 -0.09953732 0.25826979 94 66 66
0.11212625 -0.05565727 0.24264477 26 22 18
0.11085368 -0.05341640 0.25076973 18 14 10
0.07463443 -0.07712281 0.23264480 14 6 10
0.03336869 -0.11066775 0.22139478 26 22 14
0.12917095 -0.02366447 0.26576972 54 50 46
0.11606127 -0.03250390 0.27076972 26 26 22
0.13130608 -0.01268991 0.26576972 82 78 74
0.11923292 -0.02059203 0.27139470 22 18 14
0.01426890 -0.11663333 0.25201973 38 34 30
0.04302692 -0.09176012 0.27889481 46 46 38
0.09969859 -0.02732721 0.27764472 86 78 70
0.02172372 -0.10612427 0.28014481 22 18 14
0.05658934 -0.05424915 0.26201975 106 102 94
0.09162889 -0.01465203 0.26639473 150 138 130
0.07531014 -0.02827745 0.26576972 14 14 10
0.07637776 -0.02279015 0.26451981 14 14 14
0.02240589 -0.06895487 0.25514469 10 10 2
0.01264834 -0.08983637 0.28764474 98 94 90
0.06509885 -0.01490086 0.26701972 110 134 102
0.04416814 -0.03759507 0.27576980 174 170 146
0.00457218 -0.06548522 0.24951981 102 94 82
0.00503768 -0.06016554 0.24451981 18 14 10
0.08885960 0.03258558 0.26576972 186 178 142
0.08671813 0.03328701 0.27326977 174 166 142
0.08467586 0.03596228 0.26951978 198 182 154
0.07641402 0.03301366 0.27764472 134 138 114
0.03408716 -0.01769467 0.28639472 42 38 30
0.05746362 -0.00145584 0.31576979 98 102 106
0.02183580 -0.12750226 0.20389472 122 54 50
0.13583255 -0.09187655 0.23389481 22 22 18
0.09303923 -0.08497468 0.25826979 98 30 22
0.07397032 -0.08639033 0.23326981 130 114 106
0.06232531 -0.08184672 0.25451982 22 18 14
0.04907255 -0.07385812 0.28264475 66 54 42
0.05696186 -0.06257933 0.27514479 122 114 102
0.09606145 -0.04455877 0.26389480 22 14 14
0.06264131 -0.04802314 0.26201975 42 38 34
0.12090900 -0.02661312 0.26389480 26 26 22
0.00001580 -0.05377838 0.28764474 14 14 6
0.02637191 -0.04125156 0.28389475 114 106 94
-0.00213213 -0.04140098 0.27201974 34 30 26
-0.00441033 -0.03554750 0.28076982 14 10 6
0.04224980 -0.01671987 0.28014481 110 98 86
0.01431693 -0.02125176 0.29826975 34 34 30
0.07726485 0.00665120 0.27326977 166 154 78
0.11849955 0.03564632 0.23514472 6 10 6
0.05357766 0.00784264 0.31139478 82 86 90
0.05548334 0.01031933 0.32889470 90 90 90
0.04327355 0.00756929 0.33076978 78 74 70
0.00092108 0.00356489 0.32264480 86 78 74
0.01388769 0.02923236 0.31639481 110 106 98
0.04004743 -0.08804820 0.27889481 94 82 78
0.06701200 -0.08702975 0.24389480 50 46 38
0.11611138 -0.06298180 0.25576970 118 114 106
0.08847005 -0.04991588 0.26139474 26 22 18
0.02961830 -0.04359163 0.28201973 122 114 98
0.06430459 -0.03069227 0.26389480 14 10 10
0.06215666 -0.01831486 0.26576972 62 82 54
0.01584993 -0.01044481 0.31514478 66 66 66
0.06542127 0.00724686 0.32014474 58 58 46
0.01958001 0.02043672 0.32451975 90 86 82
0.00411737 0.03170271 0.31264481 86 78 70
0.01531084 -0.06444225 0.28201973 78 70 58
0.00202073 -0.04932760 0.27576980 38 34 26
0.15388292 -0.06349637 0.24951981 42 38 38
0.12302603 -0.04354033 0.26201975 18 14 14
0.11053653 -0.02431026 0.27826974 46 46 38
0.12287663 -0.01503641 0.27514479 22 18 14
0.13006450 -0.00589908 0.26889476 106 94 90
-0.01547880 0.01586754 0.30639482 102 94 86
-0.02531753 0.02091384 0.29826975 90 90 86
-0.00287191 0.02651322 0.30889475 106 98 90
0.04934371 0.04169721 0.31951973 58 58 50
0.07498242 -0.10167891 0.26014480 46 38 26
0.15897945 -0.08413561 0.25951979 18 14 14
0.07981099 -0.06076016 0.27576980 46 38 34
0.07020829 -0.05889193 0.23764479 50 46 42
0.06447862 -0.04297024 0.26264477 86 78 74
0.03118230 -0.02823472 0.27889481 182 174 154
0.06044958 -0.01684373 0.27389479 54 54 38
0.00734572 0.00146064 0.32139477 170 162 158
0.00717165 0.01373872 0.32014474 98 90 86
-0.01447958 0.02393078 0.30076978 90 86 82
0.12092611 0.06421865 0.26514482 58 62 66
0.08886818 -0.10494998 0.24451981 42 42 34
0.02426882 -0.11060588 0.21826981 58 30 26
0.14195293 -0.08822648 0.23201977 30 22 18
0.06845206 -0.08987278 0.25826979 70 58 50
0.06480212 -0.08375237 0.25264478 42 38 34
0.09761372 -0.06877975 0.24076974 90 90 78
0.06719769 -0.05972999 0.23701978 58 50 46
0.07328064 -0.04895403 0.26701972 30 26 22
0.10565784 -0.03475112 0.27139470 46 42 38
0.08862475 -0.02716606 0.26326975 38 38 34
0.03221893 -0.02729738 0.27951980 142 134 122
0.10714706 -0.00514215 0.27451980 162 154 146
0.09011406 0.00244294 0.26201975 14 10 6
0.05659461 -0.00299530 0.27889481 66 66 58
0.02434780 -0.01067426 0.30389473 74 74 70
-0.00198378 -0.00697516 0.32201979 94 90 82
0.04544597 0.01141791 0.33014473 82 86 90
0.01138003 0.02658797 0.31764472 82 78 70
0.00050053 -0.08348651 0.30014476 46 42 38
0.04224442 -0.06797376 0.27826974 42 42 38
-0.00336725 -0.04628612 0.26389480 10 10 10
0.05121943 -0.02330578 0.27701971 174 166 150
0.01548372 -0.01379052 0.30764470 74 74 74
0.00958659 0.00273320 0.32576978 182 182 174
0.07471552 -0.10305075 0.25451982 30 26 18
0.14806685 -0.07290047 0.23826979 22 18 14
0.04221343 -0.07252371 0.28451976 118 114 106
0.09167914 -0.04513001 0.26389480 14 14 14
0.09377047 -0.01535344 0.27389479 142 134 122
0.08820842 -0.00003387 0.26076972 18 18 10
0.02674974 0.00167201 0.32951972 74 78 78
0.14345494 -0.08196949 0.24701975 78 30 26
0.10249886 -0.07001487 0.24514472 42 34 30
0.11635905 -0.02658213 0.26826975 34 34 30
0.01603677 -0.04607474 0.27951980 118 110 102
0.03508634 -0.00963131 0.30889475 66 66 66
-0.01000969 -0.01310200 0.31701982 66 62 62
-0.00053187 0.02975973 0.30764470 78 78 74
0.12903434 -0.01851239 0.26826975 150 146 142
0.11500011 -0.04966716 0.25451982 18 14 10
0.12837562 0.02347397 0.21326981 54 50 34
0.09097125 -0.03559552 0.26139474 18 14 14
0.09063497 0.02853846 0.26639473 110 118 90
0.05780635 -0.07726578 0.27451980 34 26 22
0.05726505 -0.00540378 0.28014481 70 62 38
0.03326306 -0.10096574 0.27451980 38 34 26
0.03503728 -0.04208316 0.27764472 178 174 154
0.02361540 -0.01736579 0.29014480 34 34 30
0.01367101 -0.00261736 0.32451975 54 50 46
0.16222596 -0.08647565 0.26264477 30 22 18
0.13417995 -0.00669981 0.26639473 94 94 90
0.11984792 -0.04377624 0.25889477 22 18 18
0.10859473 -0.08259084 0.25826979 158 54 46
0.12140442 0.04618637 0.24701975 14 10 10
0.09511884 -0.09477599 0.25326979 98 70 58
0.09828943 -0.01993439 0.27639470 58 54 42
0.08363501 -0.07915866 0.22951972 38 30 18
0.07373438 -0.08321212 0.23451971 78 66 62
0.06609919 -0.06976721 0.26201975 18 14 10
0.07318674 0.00032588 0.25889477 74 86 58
0.06022014 -0.02534160 0.25514469 10 14 6
0.05864333 -0.01734653 0.26264477 174 198 166
0.05539036 -0.00333052 0.28201973 74 70 58
0.03524865 -0.06148718 0.25576970 122 114 106
0.04899041 0.01499956 0.33764479 94 94 90
0.02230657 -0.07092873 0.25576970 38 34 34
0.02010842 -0.02807346 0.28014481 174 166 150
0.00672549 -0.02660875 0.29389477 30 22 18
0.15254849 -0.07035548 0.23889481 14 14 14
0.14109564 -0.05018808 0.21014476 6 2 2
0.13772424 -0.00311807 0.23514472 14 14 10
0.13103390 -0.06531549 0.21889472 10 10 10
0.13354684 -0.01141737 0.26764473 114 110 102
0.12630987 -0.05300643 0.23201977 22 18 14
0.12482065 -0.08261538 0.25576970 162 102 82
0.12632161 -0.01342865 0.27264476 46 38 34
0.11154336 -0.09085271 0.19451974 14 10 10
0.12139899 -0.00506740 0.27389479 18 18 18
0.11804686 0.00697467 0.26389480 30 26 22
0.11578158 -0.01052379 0.27451980 38 38 30
0.09927158 -0.10270265 0.19076978 38 38 30
0.10896622 -0.02799128 0.26826975 62 62 58
0.10241776 -0.04408693 0.25701976 38 34 30
0.10370205 -0.00674991 0.27326977 138 134 122
0.10066047 -0.01213793 0.27326977 82 74 62
0.08360825 0.03047498 0.21201979 78 74 62
0.09016524 -0.09096481 0.25451982 134 70 62
0.08166104 -0.07905937 0.23139475 74 62 54
0.08078568 -0.06892283 0.23451971 42 34 34
0.08624621 0.03964318 0.27326977 142 130 110
0.08357737 0.02592506 0.27514479 90 78 54
0.07939997 0.01762576 0.27014482 226 214 146
0.07357103 0.03157348 0.26889476 150 146 130
0.07094587 -0.00094669 0.26451981 130 150 114
0.07183942 0.01681869 0.27639470 154 138 122
0.06885992 0.02053062 0.27514479 158 154 142
0.06680485 0.04655785 0.27576980 206 198 170
0.06079230 -0.09265367 0.25889477 54 14 2
0.05236169 -0.03207047 0.24451981 34 34 30
0.05918243 0.03665091 0.27826974 74 74 62
0.05637147 -0.02316905 0.26639473 170 186 154
0.14156115 -0.04486839 0.21514475 66 66 62
0.14490685 -0.04523461 0.25264478 26 26 18
0.13732176 -0.06226759 0.22889483 6 6 2
0.13284014 -0.06481269 0.22076975 10 10 10
0.13247287 -0.00522867 0.26514482 114 110 106
0.12843853 -0.03035589 0.25889477 14 10 6
0.12581879 -0.01162228 0.26764473 66 58 50
0.11320652 -0.07352185 0.21951973 78 58 50
0.11990333 -0.02300040 0.27451980 22 22 18
0.09960680 -0.10390690 0.19889472 34 38 34
0.09327939 0.02603069 0.21264480 66 58 42
0.08697861 0.04633472 0.20951974 74 66 54
0.10296436 -0.06469519 0.24201976 38 34 30
0.08674902 0.03783693 0.22201978 130 118 98
0.08222359 0.05409385 0.22264479 90 86 62
0.09202067 -0.05801015 0.24764478 34 30 26
0.08613632 -0.06483828 0.23701978 42 38 34
0.08172302 -0.06995946 0.23639476 42 38 34
0.07820325 -0.05731516 0.24639474 30 30 30
0.07282595 0.04823394 0.26326975 202 186 142
0.07131205 0.00239914 0.26326975 102 114 62
0.06400035 -0.02493807 0.24826978 18 14 10
0.05524952 -0.11236204 0.22076975 42 10 6
0.06095137 0.04427965 0.27576980 74 70 58
0.06270960 -0.05059912 0.26576972 42 42 38
0.06091616 -0.07445390 0.26639473 34 30 26
0.05752549 0.00764404 0.28014481 66 66 58
0.04647734 -0.03889859 0.25389481 18 22 10
0.05165394 -0.02253605 0.26951978 174 186 158
0.05265312 -0.01447270 0.27826974 102 98 86
0.03721724 -0.11284035 0.22514474 26 18 14
0.03952536 -0.05121402 0.25201973 94 94 86
0.04706023 -0.00370316 0.28201973 90 86 78
0.06264023 0.01490670 0.31889474 46 50 42
0.06016991 0.00513627 0.31826973 90 94 94
0.01644137 -0.11278483 0.22014473 14 14 10
0.05996497 0.01286444 0.32639480 66 66 58
0.03783650 -0.02184108 0.28514478 126 114 98
0.05296923 0.01935091 0.32201979 58 58 54
0.05494305 0.01925171 0.32889470 46 50 46
0.03850046 -0.01257348 0.29764473 22 22 18
0.02948814 -0.05011552 0.27951980 30 22 14
0.01695063 -0.12626703 0.24639474 46 34 30
0.02359837 -0.10819742 0.26764473 50 46 42
0.02562775 -0.08752086 0.28451976 126 114 102
0.03795386 0.00803478 0.32326972 74 74 74
0.14714128 -0.03228607 0.20451973 54 50 42
0.13517913 0.00136355 0.23576973 46 46 38
0.13643360 -0.02877908 0.24701975 30 26 22
0.13890499 -0.08193851 0.25514469 98 26 18
0.09132361 0.05403189 0.21389471 70 62 54
0.10301450 -0.09517320 0.18889475 38 26 30
0.09886806 -0.09892242 0.20201980 38 38 34
0.10050577 -0.03488774 0.26764473 42 38 34
0.08549690 -0.05787995 0.23889481 34 30 22
0.07653996 -0.07464603 0.23201977 6 10 6
0.07120642 0.01210116 0.27701971 118 110 54
0.06456618 -0.08057415 0.23451971 6 2 6
0.05995216 0.03621640 0.29701972 42 38 30
0.05493028 0.04260356 0.30139482 58 54 50
0.06418604 0.00236169 0.31326970 78 78 74
0.05768676 0.01871791 0.32264480 46 50 42
0.05621562 0.01701084 0.33139479 62 62 54
0.05196990 0.01128764 0.33326972 82 82 82
0.04617840 0.01810934 0.33826983 102 98 90
0.02066148 -0.06035768 0.28139472 134 122 102
0.12254021 0.04909765 0.25639471 54 50 42
0.13347217 0.00283472 0.24389480 46 46 38
0.07797801 0.04837056 0.25764477 94 82 54
0.12096449 -0.00583714 0.27264476 14 14 10
0.14316878 -0.04831342 0.21951973 10 6 6
0.12037529 -0.02935668 0.26951978 34 30 26
0.04425995 0.03898449 0.32514477 90 90 86
0.05239807 0.02373337 0.33451974 58 58 50
0.11815364 -0.06565706 0.25701976 34 18 10
0.05365879 -0.01808542 0.27889481 70 66 58
0.04838287 -0.03642182 0.26639473 94 114 90
0.01087193 -0.02285952 0.28639472 30 26 22
0.02344252 -0.06801752 0.25389481 6 2 2
-0.00529108 -0.07666485 0.25576970 34 30 26
0.01055701 -0.11961295 0.21514475 62 50 46
0.02152511 -0.11007211 0.26326975 42 38 34
0.10321098 0.03463422 0.19826971 54 46 38
0.11188915 0.01045065 0.25514469 30 26 22
0.07799079 0.02501871 0.27576980 154 134 90
0.11843231 -0.02470744 0.27576980 26 22 14
0.13822812 -0.06785417 0.23139475 26 22 14
0.05493779 -0.03200214 0.24264477 10 6 6
0.02067324 -0.02077991 0.28576979 30 26 22
0.02203333 -0.06062458 0.27764472 94 74 50
0.01671472 -0.12308893 0.21389471 74 54 38
0.07342794 0.04840152 0.23701978 90 74 54
0.04763662 0.04316835 0.31951973 50 50 42
0.09354630 0.02740254 0.26139474 118 138 114
0.13319881 0.01313884 0.20514476 86 78 50
0.10365830 0.01205199 0.22201978 26 22 18
0.05069102 0.02520439 0.33451974 62 58 50
0.13003352 -0.01044903 0.26889476 138 130 114
0.14202651 -0.03954873 0.20451973 22 14 10
0.04898499 -0.03625420 0.24764478 30 26 18
0.01091569 -0.04166141 0.28451976 94 78 62
0.01775019 -0.05922189 0.28264475 178 154 134
0.05710283 0.04645222 0.29264471 78 70 62
0.10538988 0.02680688 0.19576977 126 122 102
0.13534039 0.01243743 0.19201982 102 94 62
0.06439741 -0.01704233 0.25014472 10 10 2
0.14369628 -0.03389383 0.21264480 10 6 2
-0.00090862 -0.07609369 0.28389475 26 26 22
0.08374076 -0.08886065 0.21014476 78 30 18
0.00193425 -0.07465354 0.29826975 14 10 10
-0.02594418 0.00452030 0.30389473 94 86 82
0.07006521 -0.04206389 0.25451982 22 18 14
0.11045544 0.00161768 0.27139470 74 66 66
0.01500119 -0.10994183 0.27264476 50 46 42
-0.01413159 -0.00062531 0.31514478 98 94 90
-0.02183508 0.01539558 0.30076978 98 98 94
0.00623442 0.01477539 0.32076976 110 106 106
0.02358560 -0.08484557 0.27514479 54 50 46
0.12892434 -0.12299389 0.33951974 66 58 54
0.14376563 -0.09939966 0.25389481 98 46 42
0.17469727 -0.13360764 0.28951979 62 58 54
0.14025232 -0.09843132 0.24201976 14 10 6
0.16202208 -0.14167735 0.30826971 98 90 78
0.10071822 -0.11722161 0.24639474 38 38 34
0.04572145 -0.12474579 0.20826982 66 46 38
0.01775770 -0.13382760 0.24701975 82 26 22
0.14695016 -0.11083959 0.26014480 82 46 38
0.17493963 -0.14846170 0.29889476 42 38 38
0.17746010 -0.16916926 0.26639473 22 22 22
0.16155659 -0.14699703 0.31014478 78 74 70
0.15775183 -0.16362645 0.29014480 50 42 42
0.13774559 -0.16400547 0.27451980 26 22 22
0.13081180 -0.14841899 0.31889474 98 94 90
0.04870752 -0.14013365 0.19701982 66 62 50
0.04238854 -0.14773154 0.20201980 182 166 138
0.03499571 -0.14914070 0.21014476 226 114 94
0.02311480 -0.14141899 0.21514475 58 10 10
0.03295344 -0.14646544 0.24826978 62 58 58
0.16934025 -0.12601608 0.29701972 98 90 82
0.16181716 -0.13394918 0.30201972 74 66 62
0.15840948 -0.14268298 0.30451974 98 90 86
0.17220885 -0.17127985 0.27701971 22 18 14
0.05442426 -0.13270339 0.20326972 62 58 46
0.08662847 -0.16915226 0.21889472 106 142 162
0.07615671 -0.16882338 0.23014472 74 86 86
0.02603877 -0.16590677 0.21451974 138 98 82
0.17286003 -0.13866040 0.30014476 74 66 62
0.17786363 -0.17294949 0.26826975 58 54 50
0.13516314 -0.15239780 0.30139482 30 38 42
0.02876968 -0.14308861 0.20451973 126 42 34
0.02697612 -0.16694342 0.21639477 158 98 82
0.07773244 -0.11388859 0.20264482 70 66 58
0.07941498 -0.13158564 0.19514476 162 170 162
0.16492695 -0.13113728 0.29826975 86 82 74
0.04151318 -0.13759500 0.20264482 142 134 102
0.18237624 -0.16585444 0.26701972 22 18 18
0.07929747 -0.16146141 0.22076975 54 98 130
0.02415131 -0.14048167 0.23951970 38 34 38
0.14785019 -0.10475019 0.25451982 102 58 46
0.09154987 -0.11458357 0.25326979 70 66 58
0.17074297 -0.12173307 0.29201970 86 78 74
0.16442411 -0.12933092 0.29889476 86 82 78
0.06628064 -0.15665103 0.23076974 98 142 166
0.12872574 -0.12694170 0.33326972 50 50 42
0.13519414 -0.14784786 0.32264480 118 114 110
0.08102262 -0.13503067 0.18389474 146 142 138
0.06128984 -0.14571378 0.19639480 78 78 62
0.10025914 -0.13421714 0.22514474 98 98 102
0.07187369 -0.16742066 0.19201982 86 78 74
0.04633649 -0.14793012 0.24701975 102 86 78
0.07072497 -0.14697999 0.24451981 66 78 86
0.07143918 -0.16819037 0.22576974 98 118 122
0.12463486 -0.10991518 0.33951974 118 114 110
0.16151926 -0.13987097 0.29514480 102 94 90
0.15878201 -0.15101315 0.30701983 110 102 98
0.02399650 -0.16323151 0.21514475 114 102 74
0.06585260 -0.16909672 0.19264483 90 86 74
0.10545501 -0.15288255 0.19264483 34 30 26
0.13273555 -0.11804040 0.25889477 98 58 54
0.12842150 -0.12118751 0.33889472 90 86 82
0.14115325 -0.15527168 0.30326974 118 114 110
0.01988106 -0.16243079 0.22076975 138 122 102
0.05453635 -0.15408140 0.23264480 110 82 82
0.10588306 -0.14043684 0.18764471 98 98 82
0.10858932 -0.13384460 0.26076972 38 38 34
0.14765793 -0.12037413 0.26701972 30 22 18
0.15789376 -0.11752480 0.28764474 54 50 42
0.15078063 -0.14091407 0.30889475 94 86 78
0.07976931 -0.16781773 0.20139480 42 46 42
0.13008586 -0.16678649 0.23889481 54 54 54
0.15660839 -0.09193195 0.26576972 46 38 38
0.16562189 -0.11731973 0.27701971 62 58 54
0.08587047 -0.12913986 0.18389474 162 158 142
0.15600628 -0.09209958 0.26139474 30 18 14
0.08248734 -0.12164775 0.19014476 82 74 66
0.12928513 -0.17090192 0.21826981 38 38 42
0.06939054 -0.15383899 0.20451973 42 42 34
0.02230762 -0.13385847 0.21076977 154 66 66
0.10687064 -0.17195134 0.25076973 90 86 86
0.08734795 -0.13910878 0.25389481 110 106 94
0.06964454 -0.12911533 0.19264483 134 118 106
0.04246330 -0.16198349 0.19826971 70 70 50
0.07896871 -0.17193314 0.23764479 110 106 102
0.04311448 -0.12936404 0.21201979 94 86 74
0.13012858 -0.12265866 0.26264477 110 82 74
0.03315201 -0.14251748 0.24514472 78 70 66
0.06288471 -0.12580696 0.20201980 54 46 34
0.03824211 -0.15148076 0.20889471 238 186 146
0.07050183 -0.16715375 0.23264480 58 66 66
0.06673335 -0.12797938 0.19951974 102 98 82
0.04927865 -0.14451598 0.19826971 134 114 86
0.06427579 -0.16110167 0.23576973 110 134 138
0.04076268 -0.17218831 0.21201979 194 98 86
0.14952625 -0.11077127 0.26639473 22 10 6
0.10416964 -0.12728970 0.25201973 26 26 22
0.12819195 -0.12968542 0.26201975 14 10 10
0.16675138 -0.10273257 0.28014481 50 50 46
0.16608094 -0.10032408 0.27514479 30 30 26
0.10407670 -0.14093967 0.21264480 30 30 30
0.16303302 -0.09403621 0.27076972 58 54 50
0.14701214 -0.10173970 0.24701975 46 42 38
0.13754606 -0.10502353 0.23826979 22 22 18
0.11751527 -0.12162848 0.25389481 10 10 10
0.13982414 -0.11087705 0.24951981 18 18 14
0.08428840 -0.17239864 0.23139475 78 82 86
0.13115983 -0.17297520 0.24764478 70 70 66
0.13683923 -0.15841889 0.28889477 42 34 30
0.13653500 -0.15266471 0.30076978 46 38 34
0.13773924 -0.15232947 0.28264475 42 38 34
0.12645400 -0.13276419 0.32576978 50 42 34
0.14177990 -0.13887814 0.29764473 50 46 46
0.13592008 -0.12948036 0.29201970 30 30 26
0.15556017 -0.13244715 0.30076978 106 98 86
0.16860786 -0.13270761 0.27826974 50 50 46
0.13724816 -0.11094534 0.25014472 22 18 14
0.15316987 -0.10521568 0.26951978 22 10 10
0.15781263 -0.09159675 0.25514469 26 14 14
0.13587101 -0.16193219 0.28014481 46 42 38
0.09166211 -0.13596165 0.25826979 74 70 62
0.10919143 -0.13367701 0.25826979 54 50 46
0.17647265 -0.13765475 0.29951975 82 70 58
0.16338103 -0.11859231 0.29139480 106 94 78
0.15500709 -0.10016293 0.26076972 26 22 18
0.12627465 -0.17173995 0.26326975 110 102 98
0.05021600 -0.14555262 0.24639474 122 118 114
0.11081846 -0.17214994 0.19951974 110 154 170
0.07594533 -0.14941935 0.22701977 30 30 30
0.10532472 -0.15940635 0.19201982 58 54 46
0.08283544 -0.14620380 0.19389473 102 102 86
0.11681382 -0.12376995 0.25389481 30 30 26
0.14685087 -0.11281358 0.26014480 46 14 6
0.14824726 -0.09685457 0.26076972 74 10 6
0.09278619 -0.17262824 0.24514472 106 94 86
0.07906803 -0.16995929 0.23326981 90 98 102
0.08937214 -0.16968593 0.23389481 130 134 134
0.13704430 -0.16614704 0.26701972 30 22 18
0.13421948 -0.13968529 0.32451975 66 58 46
0.13470410 -0.16939346 0.24014471 30 26 26
0.14145114 -0.14934985 0.28951979 54 50 42
0.13623077 -0.14691052 0.28764474 50 42 34
0.06035253 -0.14467725 0.23826979 74 74 66
0.08664665 -0.14125034 0.25389481 82 78 70
0.07561657 -0.15989108 0.19826971 54 50 42
0.08811767 -0.13954329 0.25389481 118 114 102
0.07618124 -0.15259744 0.20764481 82 82 70
0.14010385 -0.13285716 0.29076982 54 46 38
0.15679526 -0.12756202 0.30201972 94 86 78
0.10952666 -0.13488124 0.23576973 42 34 38
0.14926571 -0.12381913 0.28451976 58 50 46
0.15582058 -0.11939932 0.28389475 78 66 58
0.15979940 -0.11504799 0.28889477 66 62 50
0.14795583 -0.11445233 0.26201975 26 18 14
0.14189741 -0.10900237 0.25826979 142 78 66
0.14072415 -0.10478765 0.24826978 30 22 22
0.14299589 -0.09896515 0.24514472 14 10 6
0.02122192 -0.16724764 0.22139478 154 134 106
0.08773339 -0.17079088 0.23639476 114 122 130
0.10720585 -0.17315558 0.23326981 138 130 122
0.13482791 -0.15119356 0.28889477 42 38 38
0.13733572 -0.14854926 0.28951979 58 54 46
0.14345598 -0.14489923 0.29076982 58 50 38
0.13154408 -0.14172748 0.28389475 30 26 26
0.06771448 -0.14781801 0.20826982 142 142 126
0.12466043 -0.15661900 0.19326973 22 22 18
0.14173625 -0.12007621 0.29076982 58 50 42
0.15625510 -0.11862960 0.29076982 70 62 54
0.14126429 -0.11371994 0.25889477 174 90 82
0.15169871 -0.10692278 0.26389480 38 18 14
0.14634170 -0.09933122 0.25764477 150 54 50
0.14550367 -0.09632073 0.25514469 106 50 42
0.10569093 -0.15606064 0.19326973 82 82 66
0.14766437 -0.13204998 0.28076982 54 46 42
0.11009144 -0.12758757 0.25514469 98 90 82
0.09862685 -0.14699806 0.18889475 66 66 54
0.16589513 -0.12762389 0.29889476 102 94 78
0.09623656 -0.11976659 0.24576974 62 58 50
0.09821042 -0.11986591 0.24639474 50 46 42
0.15280998 -0.12023740 0.29014480 82 70 58
0.08810487 -0.11619131 0.23389481 54 46 38
0.15979940 -0.11504799 0.28889477 98 86 70
0.15414450 -0.11337824 0.27701971 58 46 38
0.16146904 -0.10939310 0.28264475 66 58 50
0.13682011 -0.12339105 0.20764481 74 62 58
0.13243765 -0.12396221 0.20014475 62 46 38
0.14972474 -0.10682347 0.26201975 30 10 6
0.14320728 -0.11836916 0.21014476 30 26 26
0.15758307 -0.10009465 0.26451981 22 14 14
0.16420630 -0.09825093 0.27201974 38 34 30
0.10339994 -0.12685530 0.24014471 54 50 38
0.06907342 -0.12473300 0.20326972 70 66 54
0.09909224 -0.14167841 0.18951975 82 86 70
0.09131397 -0.11140546 0.25014472 54 58 50
0.11799353 -0.13966064 0.19764481 46 38 30
0.14611858 -0.11950508 0.26639473 46 38 30
0.14508839 -0.13211828 0.21326981 10 10 6
0.09894927 -0.12485035 0.18701981 122 126 106
0.16123310 -0.10621490 0.27639470 38 38 30
0.13865732 -0.11833817 0.21076977 38 34 34
0.13858256 -0.10408625 0.23201977 30 26 22
0.15824714 -0.09082700 0.26389480 50 34 38
0.15822896 -0.11872892 0.28889477 98 86 74
0.16726065 -0.11621477 0.29139480 110 94 82
0.15618679 -0.11605363 0.27389479 58 50 42
0.13176721 -0.12155373 0.22139478 22 26 22
0.12976235 -0.12600435 0.18389474 42 34 26
0.15440497 -0.10033054 0.26264477 42 18 14
0.11623635 -0.10771161 0.18576978 26 22 14
0.15907989 -0.14509134 0.30701983 102 90 78
0.09609456 -0.16586840 0.20826982 110 134 146
0.16500172 -0.14538921 0.30514476 110 98 86
0.16603822 -0.14445192 0.30764470 94 82 70
0.01230774 -0.13988601 0.20389472 34 30 34
0.12938441 -0.16892797 0.20764481 50 62 78
0.11419513 -0.16796608 0.19826971 58 70 74
0.13520694 -0.17119981 0.19326973 94 114 130
0.04148219 -0.14214496 0.20701981 222 210 158
0.08836004 -0.15439737 0.20264482 86 94 74
0.07012285 -0.14714761 0.20014475 106 98 90
0.08390941 -0.15239251 0.20014475 74 74 58
0.15056396 -0.17276379 0.18451977 26 38 46
0.09618749 -0.15221842 0.19389473 62 70 58
0.05898067 -0.14441036 0.18389474 118 110 98
0.06078704 -0.14390752 0.18326974 90 86 78
0.10662180 -0.14542128 0.20514476 34 34 26
0.08045796 -0.14232430 0.19201982 118 130 98
0.07875088 -0.14085315 0.19201982 130 134 106
0.05488976 -0.12738371 0.20889471 78 66 58
0.07630509 -0.13439767 0.19014476 130 138 114
0.09594513 -0.13736437 0.18389474 82 86 66
0.14732271 -0.11916989 0.26514482 42 30 30
0.16009718 -0.10912621 0.27951980 58 50 42
0.13530518 -0.10629612 0.23889481 22 22 18
0.17043348 -0.16723272 0.29451978 74 62 54
0.16705032 -0.15974051 0.30451974 58 50 42
0.15226454 -0.16255884 0.28701973 82 74 66
0.13537455 -0.17180194 0.25451982 42 38 34
0.13536820 -0.16012594 0.28076982 38 30 30
0.13495824 -0.14466977 0.32076976 58 50 42
0.13426325 -0.15848720 0.27076972 38 38 34
0.13140745 -0.13657540 0.33014473 66 54 46
0.02747895 -0.16874978 0.21826981 178 118 94
0.03065716 -0.16851383 0.21326981 142 82 54
0.13562864 -0.14707811 0.28326973 46 42 34
0.03343172 -0.16449761 0.21701978 182 70 54
0.05948994 -0.15789258 0.23264480 82 90 90
0.06310254 -0.15688694 0.23264480 106 146 166
0.03319581 -0.16131949 0.21701978 202 66 54
0.06413918 -0.15594959 0.23264480 102 126 142
0.03493373 -0.15824060 0.21451974 222 66 66
0.07638630 -0.16032559 0.21076977 142 150 146
0.02968237 -0.16035119 0.20139480 142 82 70
0.02426340 -0.16185966 0.18514478 58 46 30
0.08012272 -0.14112006 0.25764477 74 66 58
0.16408890 -0.12812668 0.29701972 106 98 86
0.09182968 -0.13656364 0.25389481 122 110 98
0.08574031 -0.13566375 0.24951981 70 62 54
0.14321373 -0.13004515 0.26264477 26 22 22
0.06861437 -0.14172864 0.20451973 190 174 150
0.06362991 -0.14246736 0.20389472 70 66 50
0.11110343 -0.14287621 0.18514478 106 106 90
0.11079273 -0.12544605 0.25514469 42 38 30
0.03963849 -0.13552174 0.20514476 110 102 82
0.07894948 -0.13690534 0.19326973 118 122 106
0.03966948 -0.13097179 0.21139479 90 86 66
0.06807420 -0.13279623 0.19639480 166 166 146
0.09038308 -0.12204479 0.22639476 54 54 38
0.05937139 -0.12483862 0.20889471 98 90 82
0.06582699 -0.12239279 0.20826982 78 70 62
0.15333746 -0.10581782 0.26389480 22 14 6
0.08824150 -0.12134339 0.18826973 150 114 98
0.13781284 -0.10365173 0.23389481 26 18 18
0.14189094 -0.09732640 0.24514472 10 10 6
0.16103569 -0.17309254 0.27389479 66 58 50
0.14611317 -0.17075886 0.26889476 86 74 66
0.15072511 -0.16168994 0.28389475 78 74 62
0.09030949 -0.17072257 0.24639474 106 106 106
0.16500172 -0.14538921 0.30889475 110 98 86
0.13114056 -0.13794726 0.32451975 58 50 46
0.12584014 -0.17250970 0.19639480 54 78 94
0.13110968 -0.14249717 0.28764474 62 58 54
0.06935954 -0.15838894 0.23264480 130 182 218
0.01867682 -0.16276602 0.22076975 162 150 130
0.13485245 -0.13496764 0.28951979 74 66 58
0.04895623 -0.16666372 0.18389474 94 66 50
0.12037737 -0.15521616 0.19826971 34 34 34
0.17312047 -0.12561257 0.29764473 110 102 90
0.02799997 -0.14265423 0.24764478 138 78 74
0.07929116 -0.14978553 0.19951974 118 118 102
0.03619984 -0.14880550 0.20639479 230 150 110
0.02742881 -0.13827176 0.24514472 58 38 38
0.11120275 -0.14090234 0.18826973 74 74 66
0.03344979 -0.13659571 0.21139479 138 94 66
0.06831014 -0.13597444 0.19514476 190 186 162
0.03682661 -0.13241196 0.21201979 82 70 50
0.04027160 -0.13080418 0.20951974 82 94 70
0.04468494 -0.12568310 0.20951974 82 66 46
0.02705617 -0.12994163 0.18264472 154 98 82
0.07050710 -0.11589989 0.20576976 54 50 42
0.12266088 -0.10981590 0.19639480 90 82 74
0.17073771 -0.17298692 0.27701971 74 66 54
0.13728020 -0.16932513 0.26576972 66 66 62
0.13263097 -0.17126812 0.24201976 34 34 34
0.13569698 -0.14965421 0.31264481 50 50 42
0.13265549 -0.15504219 0.27451980 42 42 42
0.08626226 -0.17249796 0.24014471 90 98 106
0.14271724 -0.13991477 0.30326974 58 50 42
0.14609407 -0.13573100 0.30889475 102 94 86
0.10984378 -0.16398726 0.18451977 62 58 54
0.13612501 -0.13720851 0.29451978 50 46 38
0.11806832 -0.15391271 0.19701982 46 46 38
0.07688911 -0.16213185 0.21826981 110 178 214
0.07792565 -0.16119464 0.20826982 146 174 182
0.15458536 -0.12428451 0.29639480 82 70 58
0.09223954 -0.15201986 0.19451974 70 82 66
0.02119093 -0.17179760 0.20139480 126 102 70
0.04821749 -0.16167925 0.18764471 90 90 70
0.16618656 -0.11002611 0.28639472 62 62 54
0.03854634 -0.15723497 0.20639479 194 62 46
0.04209077 -0.15365331 0.20576976 234 202 166
0.10590759 -0.12421091 0.24389480 78 74 66
0.16437389 -0.09885306 0.26951978 18 10 10
0.12236311 -0.11573768 0.18264472 58 58 50
0.03777029 -0.14512457 0.21076977 210 158 118
0.12971860 -0.10720247 0.21951973 34 30 22
0.03626182 -0.13970560 0.20639479 134 114 78
0.14379659 -0.09484959 0.25514469 42 10 2
0.04990530 -0.12812246 0.20951974 126 118 102
0.02177394 -0.13660213 0.21076977 166 66 58
0.05130803 -0.12383942 0.21201979 66 62 50
0.16344404 -0.17242214 0.28014481 74 66 58
0.16449887 -0.14358287 0.31014478 118 110 98
0.11416417 -0.17251615 0.26014480 126 114 106
0.15756500 -0.12799653 0.30451974 98 90 82
0.10836619 -0.15401837 0.19076978 58 54 42
0.08569112 -0.16811562 0.22201978 118 162 186
0.07856520 -0.16815293 0.22264479 118 150 166
0.11678287 -0.12832002 0.26139474 110 106 94
0.06945886 -0.15641509 0.22701977 70 98 110
0.04420771 -0.17058067 0.18389474 110 102 82
0.06791294 -0.14387010 0.25264478 102 106 102
0.03436906 -0.16553423 0.21514475 214 82 74
0.05663414 -0.13598078 0.19451974 66 62 50
0.06408896 -0.12547173 0.20639479 66 62 50
0.04846516 -0.12527958 0.21451974 66 66 54
0.16845950 -0.16713345 0.29139480 62 54 50
0.09037781 -0.17329864 0.25139475 126 122 114
0.13315187 -0.14517260 0.28701973 42 38 34
0.02590861 -0.17243068 0.22639476 150 110 82
0.06996166 -0.15822133 0.22576974 106 158 190
0.04628097 -0.16870598 0.18451977 154 86 70
0.10035846 -0.13224329 0.25639471 94 82 74
0.07855231 -0.14480111 0.19201982 138 146 130
0.06837843 -0.13855043 0.19639480 182 182 158
0.15286550 -0.09946153 0.26576972 26 22 18
0.08880631 -0.11404985 0.23701978 46 42 34
0.13711259 -0.16872300 0.25014472 34 30 26
0.03561063 -0.17232503 0.21389471 178 102 86
0.02683950 -0.16179135 0.20826982 102 94 74
0.04028441 -0.15415615 0.20701981 202 170 138
0.09969437 -0.14151080 0.20764481 50 54 46
0.15587610 -0.09862346 0.26514482 30 30 18
0.14549193 -0.13589862 0.30139482 114 98 86
0.13400280 -0.17153502 0.21514475 42 42 34
0.11454211 -0.12959255 0.26139474 70 62 58
0.09808026 -0.12638980 0.23639476 86 86 74
0.09931007 -0.17275839 0.25076973 98 102 98
0.06116603 -0.16391365 0.23076974 78 82 82
0.06225806 -0.14220048 0.24576974 102 98 82
0.03914211 -0.14539135 0.20889471 238 214 166
0.11645411 -0.13879174 0.19701982 58 58 54
0.15343028 -0.09216786 0.26764473 58 50 50
0.10930999 -0.16673097 0.20201980 50 74 82
0.02984998 -0.16095331 0.20889471 126 58 38
0.07547349 -0.14306302 0.25076973 102 98 86
0.10855845 -0.13839453 0.19139478 82 78 70
0.04793779 -0.13969915 0.20264482 146 142 118
0.05870744 -0.13410622 0.19701982 82 82 70
0.04191024 -0.12969926 0.21264480 98 102 82
0.05037069 -0.12280281 0.20764481 50 46 30
0.07893667 -0.11355336 0.20201980 50 54 46
0.09368619 -0.16653883 0.21764480 106 182 226
0.11246882 -0.13146713 0.25951979 62 58 54
0.11343716 -0.12795380 0.24264477 10 10 10
0.03418222 -0.12990429 0.21389471 106 74 62
0.08037144 -0.16765012 0.24076974 110 154 182
0.06513838 -0.14788635 0.24826978 54 54 50
0.07928470 -0.13810956 0.24014471 34 34 30
0.14261161 -0.13021274 0.18826973 14 14 14
0.09102254 -0.12900324 0.21701978 74 74 66
0.08827248 -0.11679344 0.23889481 34 30 30
0.04281025 -0.12360984 0.21264480 58 50 38
0.06871366 -0.13975467 0.25139475 94 90 86
0.03742861 -0.13224436 0.22701977 38 38 30
0.15377301 -0.16797781 0.19326973 18 30 38
0.09646074 -0.16252258 0.19639480 66 70 58
0.06587078 -0.14119481 0.20389472 134 126 110
0.02837250 -0.15098439 0.21764480 126 46 50
0.15485871 -0.13458861 0.30701983 118 102 86
0.15371644 -0.12582394 0.29826975 90 78 66
0.13120888 -0.14052336 0.32139477 50 46 34
0.12323847 -0.12587421 0.26264477 110 102 94
0.09616826 -0.11719061 0.24889480 62 54 42
0.06744754 -0.14918976 0.20326972 70 70 66
0.03442458 -0.14475836 0.20951974 218 122 94
0.17353678 -0.15274476 0.30514476 46 42 38
0.17037046 -0.11340290 0.29139480 98 90 78
0.16158113 -0.13077110 0.30139482 110 98 90
0.15426293 -0.14643225 0.30514476 58 54 46
0.14961381 -0.14837518 0.29826975 62 58 50
0.14476597 -0.15426600 0.28639472 50 46 38
0.13651046 -0.16889063 0.26451981 46 42 38
0.13469131 -0.14604150 0.30951977 66 74 78
0.10978076 -0.11015742 0.18951975 50 66 50
0.09896208 -0.14820230 0.19639480 66 70 62
0.09768309 -0.13428558 0.25764477 102 94 86
0.07440587 -0.14855033 0.19951974 214 214 202
0.06587078 -0.14119481 0.20014475 146 138 118
0.04526887 -0.15341739 0.20014475 98 102 66
0.16968182 -0.13889633 0.29014480 94 86 74
0.16359887 -0.14967230 0.30639482 90 86 74
0.15148838 -0.15044849 0.29764473 62 58 50
0.13781399 -0.16658142 0.26201975 50 46 46
0.11601959 -0.13956147 0.21451974 106 102 90
0.13466035 -0.15059155 0.30326974 30 38 42
0.09744079 -0.11943136 0.19514476 114 122 98
0.09338830 -0.17246063 0.21701978 82 102 110
0.07367358 -0.15524183 0.19889472 146 134 118
0.04674001 -0.15171033 0.20076978 110 106 78
0.03518786 -0.13351691 0.21764480 90 18 14
0.02020348 -0.14028308 0.21576975 22 10 2
0.17960167 -0.16987069 0.25701976 54 50 50
0.14463465 -0.09786019 0.25701976 106 46 46
0.14475320 -0.13091414 0.29951975 70 62 50
0.09496403 -0.11752585 0.19326973 106 110 98
0.10557884 -0.13468264 0.25451982 118 114 102
0.04777652 -0.15077300 0.19076978 138 130 110
0.02538655 -0.13559650 0.21076977 246 98 94
0.11978067 -0.10413000 0.21264480 58 58 58
0.17430018 -0.14150326 0.29951975 66 58 50
0.06318260 -0.11988515 0.20889471 70 70 58
0.12966308 -0.12797834 0.33201978 66 66 62
0.14961910 -0.09712145 0.25326979 66 22 10
0.05490257 -0.15073568 0.19014476 106 98 82
0.10775772 -0.14250998 0.20326972 42 46 42
0.03365485 -0.14432384 0.24389480 126 94 82
0.09142606 -0.13278346 0.21826981 70 70 66
0.11723557 -0.09964836 0.34889469 106 102 94
0.12166167 -0.11787914 0.34889469 118 110 106
0.12634191 -0.11138621 0.34264469 86 78 74
0.14751603 -0.16647580 0.34889469 134 126 122
0.12560949 -0.11807774 0.34389469 166 162 162
0.11995463 -0.11640811 0.34326971 110 98 82
0.12416935 -0.11523487 0.34576976 174 162 134
0.12125815 -0.11409891 0.34576976 178 162 142
0.12032081 -0.11306229 0.34701979 134 122 102
0.12460386 -0.11446513 0.34514472 150 130 110
0.15944064 0.17290309 0.14139472 142 134 126
0.25111026 0.16987558 0.12826978 122 114 110
0.23823006 0.16953389 0.17451978 10 10 14
0.25517020 0.14829898 0.13264477 26 22 26
0.26694232 -0.02683403 0.12951970 138 130 122
0.24265197 0.03711954 0.09139477 118 114 114
0.26637644 0.02880217 0.12326979 182 174 154
0.27234745 0.06095615 0.15701973 138 138 138
0.20074153 -0.04072094 0.17701972 46 54 38
0.16875516 -0.03535207 0.17889476 38 34 26
0.15527283 -0.03586138 0.17139469 118 114 106
0.26954821 0.04071407 0.18014477 38 34 26
0.26861089 0.04175059 0.16889475 58 50 42
0.27133006 0.02499099 0.11514473 210 198 182
0.25141028 0.04993780 0.15951978 26 26 22
0.23653169 0.03346951 0.18076980 22 18 10
0.27052933 0.02087543 0.12826978 218 206 186
0.25956652 0.06258844 0.13264477 34 30 30
0.24532732 0.03916184 0.15951978 26 18 10
0.23449585 0.02446892 0.17076981 150 138 122
0.26672336 0.06717581 0.12576973 34 30 30
0.25627735 0.02080080 0.14639471 206 194 162
0.13835089 0.01327546 0.17264472 62 62 50
0.25406748 0.02407818 0.14576970 98 90 62
0.25376326 0.02983237 0.16201973 154 138 114
0.15235519 -0.02304957 0.17139469 30 22 10
0.25958151 -0.08662296 0.15514480 138 130 126
0.25550342 -0.09294829 0.12139475 110 102 98
0.26117754 -0.12964584 0.11639474 122 118 114
0.25480199 -0.09508987 0.15576971 114 114 110
0.25733632 0.16382350 0.32326972 110 134 154
0.22323409 0.12318987 0.22889483 22 22 18
0.21132219 0.12636161 0.26076972 22 26 26
0.20790172 0.14097978 0.26451981 14 14 18
0.20325881 0.12736081 0.25889477 34 34 38
0.20535123 0.09420753 0.25576970 30 34 34
0.19790184 0.13495223 0.29326972 26 26 30
0.19538231 0.09273004 0.25076973 50 50 54
0.18797670 0.11467274 0.26389480 6 10 10
0.18603370 0.11932209 0.29576978 18 18 22
0.18285550 0.11908604 0.29201970 14 18 18
0.18106838 0.08355539 0.25264478 14 18 18
0.17302321 0.11245648 0.31389472 58 62 62
0.16586629 0.10786922 0.30326974 34 34 34
0.14716251 0.17272913 0.24951981 58 78 82
0.14247704 0.11498235 0.26639473 74 74 70
0.13624561 0.06978055 0.25139475 34 38 38
0.13299917 0.07212074 0.26264477 22 26 26
0.12818232 0.07077987 0.25576970 10 14 14
0.11927986 0.13771939 0.27764472 54 158 110
0.10783979 0.13453484 0.26326975 54 126 102
0.10508344 0.15842050 0.30701983 138 194 170
0.24327756 0.11644281 0.22951972 74 74 74
0.21649878 0.14272417 0.26014480 46 50 54
0.21137232 0.09588361 0.26764473 22 22 26
0.19803846 0.12980016 0.25014472 38 34 30
0.18850403 0.12909241 0.24951981 14 10 14
0.17760412 0.11697556 0.28639472 2 2 6
0.16794589 0.09806791 0.29451978 14 14 18
0.15243417 0.07688206 0.25701976 6 10 14
0.11889452 0.16940153 0.22076975 26 34 38
0.12142144 0.13701800 0.27389479 66 142 122
0.10541866 0.15721628 0.31326970 90 178 130
0.21264382 0.15657258 0.29889476 26 26 30
0.22649328 0.09749783 0.24139476 54 58 58
0.20536943 0.12210944 0.24014471 38 34 30
0.19328989 0.12588331 0.24576974 10 10 10
0.18425833 0.12336920 0.30764470 10 10 10
0.18459989 0.11048897 0.28889477 14 14 18
0.16670434 0.10485862 0.30014476 6 6 10
0.14970870 0.10531767 0.27389479 38 34 30
0.12289247 0.13872504 0.29639480 42 134 94
0.10207283 0.15758246 0.31201980 118 198 154
0.12118658 0.07726635 0.27701971 46 46 46
0.20224671 0.14264938 0.31139478 30 30 30
0.19532575 0.13488391 0.31701982 42 42 42
0.20805760 0.10079978 0.26201975 66 62 62
0.18255129 0.12484023 0.24889480 6 6 6
0.18248941 0.11574035 0.28264475 18 18 18
0.18263237 0.09891228 0.28514478 34 34 38
0.14880234 0.11090425 0.26764473 74 78 74
0.10280523 0.16427399 0.31201980 22 50 34
0.09977008 0.14721000 0.30451974 50 146 98
0.20776498 0.14613181 0.27701971 6 10 14
0.19027941 0.12504530 0.23951970 18 14 10
0.18031684 0.11189181 0.31764472 42 46 46
0.13939175 0.12839639 0.26389480 50 54 50
0.10284257 0.15714794 0.31139478 90 178 118
0.19746733 0.13418250 0.27889481 26 26 30
0.17409083 0.11794377 0.24201976 6 6 6
